0.0200707 0.800406 0.800406 2 2 2
0.0200707 0.800406 0.800406 2 2 2
0.0200707 0.800406 0.800406 2 2 2
0.0200707 0.800406 0.800406 2 2 2
0.0200707 0.800406 0.800406 2 2 2
0.0200707 0.800406 0.800406 2 2 2
0.0200694 0.800397 0.800397 2 2 2
0.020067 0.800378 0.800378 2 2 2
0.0200621 0.800341 0.800341 2 2 2
0.0200522 0.800268 0.800268 2 2 2
0.0200325 0.80012 0.80012 2 2 2
0.0199932 0.799825 0.799825 2 2 2
0.0199148 0.799235 0.799235 2 2 2
0.0197585 0.798056 0.798056 2 2 2
0.0194483 0.795697 0.795697 2 2 2
0.0188376 0.790981 0.790981 2 2 2
0.0176812 0.781772 0.781772 2 2 2
0.0165727 0.772568 0.772568 2 2 2
0.0155113 0.763369 0.763369 2 2 2
0.0144963 0.754176 0.754176 2 2 2
0.0135269 0.744989 0.744989 2 2 2
0.0126023 0.735809 0.735809 2 2 2
0.0117216 0.726635 0.726635 2 2 2
0.010884 0.717468 0.717468 2 2 2
0.0100885 0.708309 0.708309 2 2 2
0.00933416 0.699158 0.699158 2 2 2
0.00861996 0.690016 0.690016 2 2 2
0.0079449 0.680881 0.680881 2 2 2
0.00730791 0.671756 0.671756 2 2 2
0.00670791 0.662641 0.662641 2 2 2
0.0061438 0.653535 0.653535 2 2 2
0.00561444 0.644439 0.644439 2 2 2
0.00511867 0.635354 0.635354 2 2 2
0.00465533 0.626279 0.626279 2 2 2
0.00422323 0.617216 0.617216 2 2 2
0.00382116 0.608164 0.608164 2 2 2
0.0034479 0.599123 0.599123 2 2 2
0.00310225 0.590095 0.590095 2 2 2
0.00278296 0.58108 0.58108 2 2 2
0.00248882 0.572077 0.572077 2 2 2
0.00221858 0.563087 0.563087 2 2 2
0.00197104 0.554111 0.554111 2 2 2
0.00174495 0.545149 0.545149 2 2 2
0.00153913 0.536201 0.536201 2 2 2
0.00135238 0.527267 0.527267 2 2 2
0.00118352 0.518349 0.518349 2 2 2
0.00103138 0.509446 0.509446 2 2 2
0.000894851 0.500559 0.500559 2 2 2
0.000772809 0.491688 0.491688 2 2 2
0.000664181 0.482834 0.482834 2 2 2
0.000567921 0.473997 0.473997 2 2 2
0.00048302 0.465177 0.465177 2 2 2
0.000408506 0.456376 0.456376 2 2 2
0.000343447 0.447593 0.447593 2 2 2
0.000286954 0.43883 0.43883 2 2 2
0.000238182 0.430087 0.430087 2 2 2
0.000196334 0.421363 0.421363 2 2 2
0.000160657 0.412661 0.412661 2 2 2
0.000130449 0.403981 0.403981 2 2 2
0.000105057 0.395323 0.395323 2 2 2
8.38775e-05 0.386688 0.386688 2 2 2
6.63546e-05 0.378077 0.378077 2 2 2
5.19828e-05 0.36949 0.36949 2 2 2
4.03037e-05 0.36093 0.36093 2 2 2
3.0906e-05 0.352395 0.352395 2 2 2
2.34228e-05 0.343889 0.343889 2 2 2
1.75307e-05 0.33541 0.33541 2 2 2
1.29466e-05 0.326962 0.326962 2 2 2
9.4255e-06 0.318543 0.318543 2 2 2
6.75789e-06 0.310157 0.310157 2 2 2
4.76646e-06 0.301804 0.301804 2 2 2
3.3032e-06 0.293485 0.293485 2 2 2
2.24622e-06 0.285201 0.285201 2 2 2
1.49662e-06 0.276955 0.276955 2 2 2
9.75479e-07 0.268748 0.268748 2 2 2
6.20863e-07 0.260581 0.260581 2 2 2
3.85114e-07 0.252456 0.252456 2 2 2
2.32301e-07 0.244375 0.244375 2 2 2
1.35931e-07 0.23634 0.23634 2 2 2
7.69516e-08 0.228353 0.228353 2 2 2
4.20172e-08 0.220416 0.220416 2 2 2
2.20527e-08 0.212531 0.212531 2 2 2
0.0200707 0.212531 0.212531 2 3 2
0.0200707 0.212531 0.212531 2 3 2
0.0200707 0.212531 0.212531 2 3 2
0.0200707 0.212531 0.212531 2 3 2
0.0200707 0.212531 0.212531 2 3 2
0.0200707 0.800406 0.800406 2 3 2
0.0200719 0.800415 0.800415 2 3 2
0.0200744 0.800433 0.800433 2 3 2
0.0200793 0.80047 0.80047 2 3 2
0.0200891 0.800544 0.800544 2 3 2
0.0201088 0.800691 0.800691 2 3 2
0.0201483 0.800986 0.800986 2 3 2
0.0202273 0.801576 0.801576 2 3 2
0.020386 0.802756 0.802756 2 3 2
0.0207058 0.805115 0.805115 2 3 2
0.0213552 0.809835 0.809835 2 3 2
0.0226611 0.819056 0.819056 2 3 2
0.0240173 0.82828 0.82828 2 3 2
0.0254242 0.837507 0.837507 2 3 2
0.0268823 0.846736 0.846736 2 3 2
0.028392 0.855967 0.855967 2 3 2
0.0299537 0.8652 0.8652 2 3 2
0.0315677 0.874433 0.874433 2 3 2
0.0332342 0.883668 0.883668 2 3 2
0.0349536 0.892902 0.892902 2 3 2
0.036726 0.902136 0.902136 2 3 2
0.0385517 0.91137 0.91137 2 3 2
0.0404306 0.920602 0.920602 2 3 2
0.042363 0.929833 0.929833 2 3 2
0.044349 0.939063 0.939063 2 3 2
0.0463884 0.94829 0.94829 2 3 2
0.0484814 0.957514 0.957514 2 3 2
0.0506278 0.966735 0.966735 2 3 2
0.0528276 0.975953 0.975953 2 3 2
0.0550807 0.985167 0.985167 2 3 2
0.057387 0.994377 0.994377 2 3 2
0.0597463 1.00358 1.00358 2 3 2
0.0621584 1.01278 1.01278 2 3 2
0.064623 1.02198 1.02198 2 3 2
0.0671401 1.03117 1.03117 2 3 2
0.0697092 1.04035 1.04035 2 3 2
0.0723301 1.04953 1.04953 2 3 2
0.0750025 1.0587 1.0587 2 3 2
0.077726 1.06786 1.06786 2 3 2
0.0805004 1.07702 1.07702 2 3 2
0.0833251 1.08617 1.08617 2 3 2
0.0862 1.09531 1.09531 2 3 2
0.0891245 1.10445 1.10445 2 3 2
0.0920982 1.11357 1.11357 2 3 2
0.0951208 1.12269 1.12269 2 3 2
0.0981918 1.1318 1.1318 2 3 2
0.101311 1.1409 1.1409 2 3 2
0.104477 1.14999 1.14999 2 3 2
0.10769 1.15907 1.15907 2 3 2
0.11095 1.16814 1.16814 2 3 2
0.114256 1.1772 1.1772 2 3 2
0.117607 1.18625 1.18625 2 3 2
0.121004 1.1953 1.1953 2 3 2
0.124445 1.20433 1.20433 2 3 2
0.12793 1.21335 1.21335 2 3 2
0.131458 1.22236 1.22236 2 3 2
0.13503 1.23136 1.23136 2 3 2
0.138643 1.24035 1.24035 2 3 2
0.142299 1.24933 1.24933 2 3 2
0.145997 1.2583 1.2583 2 3 2
0.149735 1.26726 1.26726 2 3 2
0.153513 1.2762 1.2762 2 3 2
0.157332 1.28514 1.28514 2 3 2
0.161189 1.29406 1.29406 2 3 2
0.165086 1.30297 1.30297 2 3 2
0.169021 1.31187 1.31187 2 3 2
0.172993 1.32076 1.32076 2 3 2
0.177003 1.32964 1.32964 2 3 2
0.181049 1.33851 1.33851 2 3 2
0.185132 1.34736 1.34736 2 3 2
0.189251 1.35621 1.35621 2 3 2
0.193405 1.36504 1.36504 2 3 2
0.197593 1.37386 1.37386 2 3 2
0.201816 1.38267 1.38267 2 3 2
